0.096952 0.097258 0.101715 
0.096952 0.097566 0.100870 
0.097796 0.096805 0.102559 
0.096107 0.099275 0.099834 
0.095910 0.099275 0.100026 
0.096107 0.098853 0.100026 
0.096107 0.098431 0.100341 
0.095587 0.098431 0.100870 
0.096952 0.098431 0.099562 
0.096465 0.098431 0.100026 
0.096952 0.098025 0.100026 
0.096952 0.097586 0.100823 
0.096910 0.097586 0.100870 
0.095925 0.100120 0.100026 
0.096107 0.100616 0.100026 
0.095264 0.099275 0.100870 
0.096626 0.100120 0.099181 
0.096107 0.100120 0.099772 
0.095047 0.098431 0.101715 
0.096107 0.098009 0.100870 
0.096107 0.097627 0.101715 
0.095263 0.098431 0.101335 
0.095263 0.099275 0.100873 
0.095263 0.097796 0.102559 
0.095263 0.098157 0.101715 
0.096107 0.097586 0.101827 
0.094859 0.099275 0.101715 
0.095263 0.100120 0.101549 
0.095505 0.100120 0.100870 
0.095263 0.100205 0.101715 
0.095211 0.100120 0.101715 
0.094979 0.100120 0.102559 
0.095263 0.100563 0.102559 
0.095199 0.097586 0.103404 
0.095263 0.097543 0.103404 
0.095616 0.097586 0.102559 
0.096107 0.097100 0.103404 
0.096107 0.097357 0.102559 
0.096952 0.097030 0.102559 
0.096466 0.096742 0.104248 
0.096952 0.096628 0.104248 
0.096952 0.096742 0.103761 
0.097435 0.096742 0.103404 
0.097796 0.096697 0.103404 
0.096107 0.096864 0.104248 
0.096952 0.096836 0.103404 
0.095263 0.097366 0.104248 
0.096054 0.096742 0.105093 
0.096107 0.096713 0.105093 
0.095263 0.097294 0.105937 
0.095263 0.097286 0.105093 
0.096014 0.096742 0.105937 
0.096107 0.096742 0.104874 
0.096952 0.096383 0.105937 
0.096952 0.096449 0.105093 
0.097796 0.096403 0.105093 
0.094384 0.099275 0.103404 
0.094418 0.098544 0.103404 
0.094297 0.098431 0.104248 
0.094418 0.098216 0.104248 
0.094196 0.099275 0.104248 
0.094418 0.098431 0.103503 
0.094239 0.098431 0.105093 
0.094418 0.098237 0.105937 
0.094049 0.099275 0.105093 
0.094296 0.098431 0.105937 
0.094318 0.100120 0.105093 
0.094418 0.100120 0.104726 
0.094027 0.099275 0.105937 
0.094418 0.100676 0.105937 
0.094418 0.100309 0.105093 
0.094685 0.098431 0.102559 
0.095263 0.097586 0.103245 
0.094594 0.099275 0.102559 
0.094440 0.098431 0.103404 
0.094776 0.100120 0.103404 
0.094418 0.099275 0.103258 
0.094418 0.099433 0.103404 
0.095283 0.100964 0.103404 
0.095538 0.100964 0.102559 
0.094548 0.100120 0.104248 
0.094418 0.099926 0.104248 
0.095263 0.100964 0.103466 
0.095263 0.100934 0.103404 
0.094418 0.098149 0.105093 
0.094984 0.097586 0.104248 
0.094921 0.097586 0.105093 
0.094946 0.097586 0.105937 
0.094827 0.100964 0.105093 
0.098641 0.097483 0.100026 
0.098641 0.097244 0.100870 
0.099485 0.097497 0.100870 
0.097796 0.096984 0.101715 
0.098641 0.097018 0.101715 
0.100330 0.097586 0.101241 
0.101174 0.097499 0.101715 
0.099485 0.097246 0.101715 
0.100330 0.097421 0.101715 
0.102863 0.097472 0.101715 
0.102019 0.097516 0.101715 
0.102019 0.097586 0.101588 
0.102863 0.097586 0.101547 
0.102019 0.097066 0.102559 
0.102863 0.096907 0.102559 
0.104552 0.097586 0.101518 
0.103592 0.096742 0.102559 
0.103708 0.096742 0.102523 
0.103708 0.096714 0.102559 
0.103708 0.097400 0.101715 
0.104552 0.096742 0.102339 
0.097796 0.097942 0.099181 
0.099036 0.097586 0.100026 
0.098641 0.097586 0.099730 
0.100330 0.098550 0.099181 
0.100330 0.098431 0.099367 
0.099793 0.097586 0.100870 
0.099485 0.097586 0.100566 
0.099485 0.097774 0.100026 
0.100330 0.098062 0.100026 
0.101174 0.097882 0.100870 
0.100330 0.097723 0.100870 
0.101174 0.098310 0.100026 
0.101174 0.098431 0.099855 
0.101174 0.098946 0.099181 
0.102019 0.098563 0.100026 
0.102863 0.099275 0.099681 
0.102863 0.098853 0.100026 
0.101589 0.098431 0.100026 
0.102019 0.098003 0.100870 
0.102863 0.098431 0.100451 
0.102863 0.098092 0.100870 
0.102019 0.098431 0.100196 
0.103708 0.099275 0.099989 
0.103708 0.099223 0.100026 
0.103708 0.098431 0.100639 
0.102019 0.099407 0.099181 
0.102019 0.099275 0.099289 
0.103708 0.100120 0.099551 
0.102863 0.100070 0.099181 
0.103814 0.099275 0.100026 
0.103708 0.100964 0.099280 
0.104552 0.100120 0.099847 
0.104552 0.099275 0.100230 
0.101174 0.097586 0.101519 
0.103708 0.097586 0.101498 
0.103708 0.098194 0.100870 
0.097796 0.096742 0.103055 
0.098641 0.096742 0.103111 
0.099088 0.096742 0.103404 
0.098641 0.096829 0.102559 
0.097796 0.096569 0.104248 
0.098641 0.096700 0.103404 
0.099485 0.096666 0.104248 
0.099485 0.096790 0.103404 
0.099485 0.097001 0.102559 
0.100330 0.097125 0.102559 
0.101174 0.097140 0.102559 
0.100330 0.096859 0.103404 
0.101174 0.096823 0.103404 
0.100330 0.096742 0.103925 
0.099485 0.096742 0.103672 
0.098641 0.096480 0.105093 
0.098641 0.096598 0.104248 
0.099485 0.096600 0.105093 
0.100330 0.096627 0.105093 
0.100330 0.096685 0.104248 
0.101174 0.096530 0.105937 
0.103708 0.095897 0.103897 
0.104552 0.095878 0.103404 
0.102019 0.096742 0.103215 
0.102019 0.096650 0.103404 
0.102863 0.096742 0.102819 
0.102863 0.096394 0.103404 
0.101174 0.096742 0.103643 
0.101174 0.096565 0.104248 
0.101677 0.096742 0.103404 
0.103349 0.095897 0.104248 
0.104496 0.095897 0.103404 
0.103708 0.096148 0.103404 
0.103708 0.095619 0.105093 
0.103042 0.095897 0.105093 
0.103708 0.095758 0.104248 
0.103708 0.095704 0.105937 
0.104552 0.095325 0.105937 
0.104552 0.095239 0.105093 
0.102019 0.096329 0.104248 
0.102863 0.095962 0.105093 
0.102019 0.096307 0.105937 
0.101174 0.096469 0.105093 
0.102019 0.096219 0.105093 
0.102863 0.096067 0.104248 
0.102863 0.096058 0.105937 
0.106973 0.094208 0.104248 
0.107086 0.094148 0.104248 
0.106585 0.094208 0.105093 
0.107086 0.093937 0.105093 
0.109190 0.094208 0.103404 
0.107930 0.093753 0.104248 
0.108775 0.094185 0.103404 
0.109619 0.093591 0.104248 
0.108775 0.093489 0.104248 
0.109619 0.094208 0.103483 
0.108685 0.093364 0.105093 
0.108775 0.093364 0.104938 
0.109051 0.093364 0.105093 
0.109619 0.093479 0.105093 
0.108775 0.093358 0.105093 
0.108775 0.093364 0.105378 
0.107930 0.093650 0.105937 
0.107930 0.093573 0.105093 
0.108775 0.093489 0.105937 
0.110464 0.094061 0.105093 
0.110607 0.094208 0.105093 
0.106303 0.095897 0.102559 
0.107086 0.095897 0.102382 
0.107086 0.095644 0.102559 
0.105397 0.097586 0.101500 
0.105397 0.097283 0.101715 
0.105397 0.096269 0.102559 
0.105397 0.096742 0.102135 
0.104552 0.097371 0.101715 
0.106241 0.096742 0.101930 
0.106241 0.097072 0.101715 
0.106241 0.097586 0.101415 
0.107086 0.096979 0.101715 
0.106241 0.095920 0.102559 
0.107086 0.096742 0.101858 
0.108775 0.095897 0.102359 
0.109619 0.095897 0.102524 
0.107930 0.097076 0.101715 
0.108775 0.096742 0.101981 
0.107930 0.095897 0.102319 
0.108775 0.097327 0.101715 
0.107930 0.096742 0.101894 
0.109257 0.097586 0.101715 
0.110464 0.096509 0.102559 
0.110464 0.096742 0.102439 
0.110664 0.096742 0.102559 
0.109619 0.096742 0.102136 
0.110464 0.097586 0.102101 
0.104552 0.098431 0.100801 
0.105015 0.098431 0.100870 
0.105397 0.098492 0.100870 
0.106241 0.098616 0.100870 
0.105114 0.100120 0.100026 
0.105397 0.100964 0.099921 
0.105397 0.099275 0.100418 
0.104552 0.099689 0.100026 
0.105397 0.100120 0.100113 
0.106241 0.100964 0.100181 
0.105707 0.100964 0.100026 
0.105397 0.100466 0.100026 
0.106241 0.099275 0.100588 
0.106241 0.100120 0.100339 
0.107086 0.099275 0.100754 
0.107930 0.100120 0.100757 
0.107086 0.100120 0.100551 
0.104552 0.098350 0.100870 
0.106241 0.098431 0.100962 
0.105397 0.098431 0.100911 
0.107930 0.098431 0.101132 
0.107086 0.097586 0.101388 
0.107086 0.098885 0.100870 
0.107086 0.098431 0.101023 
0.107638 0.099275 0.100870 
0.107930 0.099548 0.100870 
0.108356 0.100120 0.100870 
0.108775 0.098431 0.101320 
0.107930 0.097586 0.101465 
0.108775 0.097586 0.101607 
0.109619 0.099275 0.101431 
0.109619 0.097586 0.101805 
0.109619 0.098431 0.101581 
0.109977 0.098431 0.101715 
0.109619 0.097891 0.101715 
0.111146 0.097586 0.102559 
0.110464 0.098431 0.101931 
0.111308 0.098431 0.102516 
0.111308 0.098176 0.102559 
0.110464 0.099275 0.101808 
0.111308 0.099275 0.102421 
0.108775 0.099275 0.101144 
0.107930 0.099275 0.100929 
0.108859 0.100964 0.100870 
0.108775 0.100780 0.100870 
0.108775 0.100120 0.100990 
0.110284 0.099275 0.101715 
0.109619 0.100120 0.101272 
0.110464 0.100120 0.101658 
0.109619 0.100964 0.101146 
0.110555 0.100120 0.101715 
0.110464 0.099815 0.101715 
0.111308 0.100120 0.102352 
0.104552 0.095897 0.103377 
0.105397 0.095897 0.102957 
0.105397 0.095030 0.104248 
0.105397 0.095053 0.104203 
0.104552 0.095417 0.104248 
0.105397 0.095530 0.103404 
0.107086 0.095053 0.103056 
0.107930 0.095053 0.102844 
0.107086 0.094722 0.103404 
0.107086 0.094208 0.104138 
0.106350 0.095053 0.103404 
0.106241 0.095053 0.103474 
0.106241 0.095105 0.103404 
0.104552 0.096541 0.102559 
0.106241 0.095897 0.102579 
0.105353 0.095053 0.104248 
0.105397 0.094834 0.105093 
0.106241 0.094475 0.105937 
0.106241 0.094394 0.105093 
0.104966 0.095053 0.105093 
0.106241 0.094604 0.104248 
0.108517 0.094208 0.103404 
0.108775 0.094208 0.103383 
0.108775 0.095053 0.102814 
0.107930 0.095478 0.102559 
0.108775 0.095502 0.102559 
0.107930 0.094208 0.103587 
0.107930 0.094384 0.103404 
0.109619 0.094314 0.103404 
0.110463 0.095053 0.103404 
0.109619 0.095053 0.102956 
0.109619 0.095824 0.102559 
0.109735 0.095897 0.102559 
0.110464 0.095897 0.102912 
0.110464 0.095054 0.103404 
0.110464 0.094260 0.104248 
0.110464 0.095053 0.103404 
0.110976 0.095053 0.104248 
0.111308 0.096742 0.103299 
0.110973 0.095897 0.103404 
0.110464 0.094208 0.104372 
0.110426 0.094208 0.104248 
0.111308 0.095464 0.105093 
0.111221 0.095053 0.105937 
0.111136 0.095053 0.105093 
0.111308 0.095250 0.105937 
0.111474 0.100120 0.102559 
0.111323 0.095897 0.104248 
0.111665 0.097586 0.103404 
0.111362 0.096742 0.103404 
0.111617 0.096742 0.104248 
0.111308 0.095897 0.104196 
0.111308 0.096615 0.103404 
0.111828 0.097586 0.104248 
0.111308 0.095858 0.104248 
0.111471 0.095897 0.105093 
0.111756 0.096742 0.105937 
0.111725 0.096742 0.105093 
0.111887 0.097586 0.105093 
0.111308 0.097586 0.102743 
0.111815 0.098431 0.103404 
0.111350 0.098431 0.102559 
0.111433 0.099275 0.102559 
0.111863 0.099275 0.103404 
0.112047 0.099275 0.104248 
0.111890 0.100120 0.103404 
0.112153 0.100033 0.104248 
0.112153 0.100120 0.104204 
0.112166 0.100120 0.104248 
0.112266 0.100964 0.104248 
0.111947 0.098431 0.104248 
0.112018 0.098431 0.105093 
0.112153 0.099275 0.104800 
0.112153 0.099033 0.105093 
0.112209 0.099275 0.105093 
0.112411 0.100120 0.105093 
0.112880 0.100964 0.105937 
0.096952 0.100964 0.099159 
0.096927 0.100964 0.099181 
0.099485 0.101809 0.098315 
0.099368 0.101809 0.098337 
0.097796 0.100964 0.098545 
0.097796 0.101809 0.098979 
0.098641 0.101401 0.098337 
0.098641 0.101809 0.098547 
0.100330 0.102142 0.098337 
0.100330 0.101809 0.098206 
0.099485 0.101852 0.098337 
0.098641 0.102653 0.099098 
0.098466 0.102653 0.099181 
0.099485 0.103167 0.099181 
0.100330 0.103473 0.099181 
0.099485 0.102653 0.098820 
0.100330 0.102653 0.098601 
0.101174 0.101809 0.098219 
0.101719 0.100964 0.098337 
0.102863 0.101809 0.098822 
0.101174 0.102653 0.098504 
0.102019 0.102653 0.098646 
0.101174 0.102228 0.098337 
0.101716 0.101809 0.098337 
0.102019 0.101809 0.098453 
0.102863 0.102653 0.098966 
0.102019 0.103498 0.099110 
0.102863 0.103192 0.099181 
0.101174 0.103498 0.099063 
0.096107 0.100964 0.100510 
0.095988 0.100964 0.100870 
0.096952 0.101006 0.099181 
0.097796 0.102653 0.099684 
0.097528 0.101809 0.099181 
0.096952 0.101809 0.099923 
0.096894 0.101809 0.100026 
0.096311 0.100964 0.100026 
0.096952 0.102238 0.100870 
0.097304 0.102653 0.100870 
0.097560 0.102653 0.100026 
0.096952 0.101886 0.100026 
0.097796 0.102906 0.100026 
0.095769 0.100964 0.101715 
0.096107 0.101727 0.102559 
0.096617 0.101809 0.100870 
0.096107 0.101143 0.100870 
0.096107 0.101453 0.101715 
0.096952 0.102419 0.101715 
0.096396 0.101809 0.101715 
0.096179 0.101809 0.102559 
0.096952 0.102564 0.102559 
0.097067 0.102653 0.102559 
0.097796 0.103240 0.101715 
0.097796 0.103205 0.100870 
0.097196 0.102653 0.101715 
0.095916 0.101809 0.103404 
0.096107 0.102343 0.104248 
0.096107 0.101809 0.102812 
0.096107 0.102033 0.103404 
0.096478 0.102653 0.104248 
0.096822 0.102653 0.103404 
0.097796 0.103246 0.103404 
0.096952 0.102653 0.103024 
0.096952 0.102744 0.103404 
0.097796 0.103339 0.104248 
0.096952 0.102957 0.104248 
0.095037 0.100964 0.104248 
0.095646 0.101809 0.104248 
0.095263 0.101301 0.104248 
0.095428 0.101809 0.105093 
0.095263 0.101609 0.105093 
0.096107 0.102548 0.105093 
0.096107 0.102552 0.105937 
0.096253 0.102653 0.105937 
0.096234 0.102653 0.105093 
0.096952 0.103113 0.105093 
0.097796 0.102111 0.099181 
0.099485 0.103498 0.099467 
0.098641 0.102759 0.099181 
0.098641 0.103498 0.099955 
0.098641 0.103552 0.100026 
0.098563 0.103498 0.100026 
0.098641 0.103952 0.100870 
0.099214 0.104342 0.100870 
0.100330 0.103498 0.099203 
0.100330 0.104310 0.100026 
0.100422 0.103498 0.099181 
0.099485 0.104026 0.100026 
0.099485 0.104342 0.100544 
0.098114 0.103498 0.100870 
0.098073 0.103498 0.101715 
0.098117 0.103498 0.102559 
0.098641 0.104061 0.101715 
0.098917 0.104342 0.102559 
0.098956 0.104342 0.101715 
0.103653 0.101809 0.099181 
0.104552 0.100964 0.099619 
0.104552 0.102653 0.099643 
0.103708 0.101809 0.099206 
0.103708 0.102653 0.099328 
0.101174 0.103636 0.099181 
0.101174 0.104342 0.099954 
0.102019 0.103590 0.099181 
0.102863 0.104218 0.100026 
0.102306 0.103498 0.099181 
0.102863 0.103498 0.099369 
0.103371 0.102653 0.099181 
0.103708 0.103498 0.099683 
0.104552 0.103613 0.100026 
0.103708 0.103955 0.100026 
0.104552 0.104342 0.100601 
0.101174 0.104401 0.100026 
0.100330 0.104342 0.100069 
0.099485 0.104499 0.100870 
0.100330 0.104841 0.100870 
0.100539 0.104342 0.100026 
0.100330 0.105178 0.101715 
0.101174 0.105187 0.101273 
0.101174 0.104961 0.100870 
0.100354 0.105187 0.101715 
0.099485 0.104750 0.101715 
0.100330 0.105187 0.101742 
0.099970 0.105187 0.102559 
0.100330 0.105390 0.102559 
0.101174 0.105411 0.101715 
0.102019 0.104364 0.100026 
0.102019 0.104342 0.099998 
0.102178 0.104342 0.100026 
0.102863 0.104799 0.100870 
0.103708 0.104342 0.100427 
0.102863 0.104342 0.100187 
0.102019 0.104913 0.100870 
0.102019 0.105187 0.101314 
0.102019 0.105427 0.101715 
0.102019 0.105777 0.102559 
0.102863 0.105699 0.102559 
0.102863 0.105187 0.101546 
0.103708 0.104683 0.100870 
0.103708 0.105187 0.101682 
0.104552 0.105187 0.101688 
0.104552 0.104592 0.100870 
0.102863 0.105291 0.101715 
0.103708 0.105208 0.101715 
0.103708 0.105687 0.102559 
0.097796 0.103226 0.102559 
0.098641 0.104063 0.103404 
0.098895 0.104342 0.103404 
0.098641 0.104054 0.102559 
0.098110 0.103498 0.103404 
0.098641 0.104089 0.104248 
0.098029 0.103498 0.104248 
0.099009 0.104342 0.105093 
0.097899 0.103498 0.105093 
0.097796 0.103441 0.105093 
0.098641 0.104045 0.105093 
0.098641 0.103856 0.105937 
0.099465 0.104342 0.105937 
0.099485 0.104864 0.102559 
0.099924 0.105187 0.103404 
0.101174 0.105692 0.102559 
0.099485 0.104849 0.104248 
0.100057 0.105187 0.104248 
0.099485 0.104891 0.103404 
0.100330 0.105343 0.104248 
0.101174 0.105779 0.103404 
0.100330 0.105433 0.103404 
0.098883 0.104342 0.104248 
0.100416 0.105187 0.105093 
0.100330 0.105187 0.104937 
0.100330 0.105141 0.105093 
0.099485 0.104676 0.105093 
0.101174 0.105713 0.104248 
0.102264 0.106031 0.104248 
0.102863 0.106031 0.103675 
0.102019 0.105918 0.103404 
0.103708 0.106031 0.103273 
0.102863 0.105950 0.103404 
0.104552 0.106031 0.102970 
0.104552 0.105775 0.102559 
0.103708 0.106098 0.103404 
0.103427 0.106031 0.103404 
0.103708 0.106579 0.104248 
0.101174 0.105564 0.105093 
0.102019 0.105960 0.104248 
0.101174 0.105359 0.105937 
0.102093 0.106031 0.105093 
0.102019 0.105986 0.105093 
0.102019 0.105949 0.105937 
0.102863 0.106218 0.104248 
0.103708 0.106876 0.104663 
0.103262 0.106876 0.105093 
0.104552 0.107427 0.105093 
0.102863 0.106583 0.105093 
0.103708 0.107175 0.105093 
0.103708 0.107518 0.105937 
0.104552 0.107909 0.105937 
0.104552 0.107720 0.105577 
0.104552 0.101809 0.099545 
0.105397 0.101809 0.099852 
0.105913 0.101809 0.100026 
0.106241 0.101809 0.100121 
0.107086 0.101809 0.100331 
0.107086 0.100964 0.100394 
0.107930 0.100964 0.100600 
0.106241 0.102653 0.100167 
0.107930 0.102653 0.100605 
0.107930 0.101809 0.100540 
0.105397 0.102653 0.099926 
0.105715 0.102653 0.100026 
0.105397 0.103090 0.100026 
0.104552 0.103498 0.099957 
0.105397 0.103498 0.100165 
0.106241 0.103498 0.100317 
0.104808 0.103498 0.100026 
0.107086 0.102653 0.100371 
0.106241 0.104342 0.100668 
0.107930 0.103498 0.100710 
0.107086 0.103498 0.100476 
0.107829 0.104342 0.100870 
0.107930 0.104342 0.100893 
0.108775 0.100964 0.100841 
0.108775 0.102461 0.100870 
0.108956 0.101809 0.100870 
0.108775 0.101809 0.100804 
0.109619 0.101809 0.101126 
0.110464 0.101809 0.101543 
0.110704 0.100964 0.101715 
0.110464 0.100964 0.101546 
0.111308 0.100964 0.102326 
0.111308 0.102653 0.102390 
0.111308 0.101809 0.102357 
0.110698 0.101809 0.101715 
0.108680 0.102653 0.100870 
0.108775 0.102653 0.100907 
0.108381 0.103498 0.100870 
0.107930 0.104255 0.100870 
0.108775 0.103498 0.101025 
0.110464 0.103359 0.101715 
0.109619 0.102653 0.101226 
0.109619 0.103498 0.101341 
0.110590 0.102653 0.101715 
0.110464 0.102653 0.101629 
0.110464 0.103498 0.101732 
0.111308 0.103498 0.102421 
0.110435 0.103498 0.101715 
0.110464 0.104342 0.101839 
0.111308 0.104342 0.102495 
0.105397 0.104342 0.100654 
0.105397 0.104581 0.100870 
0.107086 0.104342 0.100731 
0.105397 0.105187 0.101640 
0.106241 0.105187 0.101518 
0.105397 0.105244 0.101715 
0.104552 0.105207 0.101715 
0.106241 0.105338 0.101715 
0.105397 0.105852 0.102559 
0.106241 0.104621 0.100870 
0.107086 0.104597 0.100870 
0.107086 0.105187 0.101363 
0.107930 0.105798 0.101715 
0.107086 0.105527 0.101715 
0.107086 0.106031 0.102346 
0.108775 0.104342 0.101132 
0.107930 0.105187 0.101282 
0.109619 0.105187 0.101560 
0.108775 0.105187 0.101348 
0.107930 0.106031 0.101915 
0.108643 0.106031 0.101715 
0.109619 0.106031 0.101783 
0.109996 0.105187 0.101715 
0.109619 0.104342 0.101426 
0.110464 0.105187 0.101966 
0.110247 0.104342 0.101715 
0.111308 0.104910 0.102559 
0.109619 0.105796 0.101715 
0.108775 0.106048 0.101715 
0.108775 0.106031 0.101706 
0.109138 0.106031 0.101715 
0.107930 0.106655 0.102559 
0.108775 0.106876 0.102292 
0.109619 0.107378 0.102559 
0.109619 0.106876 0.102178 
0.111092 0.106031 0.102559 
0.110464 0.106031 0.102133 
0.110464 0.106876 0.102431 
0.110464 0.107107 0.102559 
0.106241 0.105946 0.102559 
0.105397 0.106031 0.102816 
0.105397 0.106876 0.104248 
0.104552 0.106815 0.104248 
0.104552 0.106308 0.103404 
0.106241 0.106481 0.103404 
0.105397 0.106417 0.103404 
0.105397 0.106876 0.104248 
0.106241 0.106876 0.104227 
0.107086 0.106190 0.102559 
0.106630 0.106031 0.102559 
0.106241 0.106031 0.102680 
0.107086 0.106634 0.103404 
0.107668 0.106876 0.103404 
0.107086 0.106876 0.104172 
0.107930 0.107014 0.103404 
0.105392 0.106876 0.104248 
0.104552 0.106876 0.104334 
0.106241 0.107412 0.105093 
0.105397 0.107458 0.105093 
0.106241 0.106887 0.104248 
0.107086 0.106900 0.104248 
0.107142 0.107720 0.105937 
0.107086 0.107241 0.105093 
0.111308 0.106031 0.102755 
0.111271 0.105187 0.102559 
0.107930 0.106876 0.102977 
0.108287 0.106876 0.102559 
0.108775 0.107147 0.102559 
0.108775 0.107551 0.103404 
0.108775 0.107451 0.104248 
0.111308 0.106876 0.103039 
0.110693 0.106876 0.102559 
0.111088 0.107720 0.103404 
0.107930 0.107031 0.104248 
0.107930 0.107018 0.105093 
0.109168 0.107720 0.104248 
0.108775 0.106876 0.105691 
0.108775 0.106845 0.105937 
0.108775 0.107051 0.105093 
0.109619 0.107531 0.105093 
0.109619 0.107720 0.104859 
0.111476 0.100964 0.102559 
0.111442 0.102653 0.102559 
0.111454 0.101809 0.102559 
0.111937 0.101809 0.103404 
0.111910 0.100964 0.103404 
0.112153 0.100964 0.103967 
0.112153 0.102653 0.103638 
0.112153 0.101809 0.103808 
0.112540 0.102653 0.104248 
0.112000 0.102653 0.103404 
0.111430 0.103498 0.102559 
0.112708 0.103498 0.104248 
0.112153 0.103498 0.103507 
0.112074 0.103498 0.103404 
0.112589 0.100964 0.105093 
0.112378 0.101809 0.104248 
0.112997 0.102596 0.105093 
0.112786 0.101809 0.105093 
0.113168 0.101809 0.105937 
0.112997 0.101809 0.105555 
0.113013 0.102653 0.105093 
0.112997 0.103498 0.104704 
0.112997 0.104342 0.104506 
0.112997 0.102653 0.105064 
0.113230 0.103498 0.105093 
0.113386 0.104342 0.105093 
0.113676 0.103498 0.105937 
0.113842 0.104342 0.105895 
0.112101 0.104342 0.103404 
0.111371 0.104342 0.102559 
0.111308 0.105187 0.102594 
0.112079 0.105187 0.103404 
0.112810 0.104342 0.104248 
0.112153 0.104342 0.103465 
0.112153 0.105187 0.103494 
0.112153 0.106031 0.103626 
0.111964 0.106031 0.103404 
0.112693 0.106031 0.104248 
0.112153 0.106876 0.103923 
0.111704 0.106876 0.103404 
0.112153 0.107378 0.104248 
0.111308 0.107507 0.103404 
0.111308 0.107720 0.103594 
0.111912 0.107720 0.104248 
0.112812 0.105187 0.104248 
0.112997 0.105187 0.104484 
0.113842 0.105187 0.105708 
0.113996 0.105187 0.105937 
0.113445 0.105187 0.105093 
0.112425 0.106876 0.104248 
0.112997 0.106876 0.104980 
0.112997 0.107073 0.105093 
0.113352 0.106031 0.105093 
0.112997 0.106031 0.104643 
0.113960 0.106031 0.105937 
0.113842 0.106031 0.105775 
0.113092 0.106876 0.105093 
0.113297 0.107720 0.105937 
0.105397 0.107720 0.105487 
0.106241 0.107969 0.105937 
0.106241 0.107720 0.105565 
0.107086 0.107720 0.105896 
0.109619 0.107720 0.102957 
0.109066 0.107720 0.103404 
0.109619 0.107947 0.103404 
0.110464 0.107720 0.103043 
0.111308 0.108121 0.104248 
0.110464 0.107992 0.103404 
0.109619 0.107975 0.104248 
0.110464 0.108225 0.104248 
0.109882 0.107720 0.105093 
0.110464 0.107720 0.105704 
0.110464 0.108066 0.105093 
0.111308 0.108269 0.105093 
0.112153 0.107720 0.104577 
0.112153 0.108047 0.105093 
0.112566 0.107720 0.105093 
0.112997 0.107720 0.105595 
0.112997 0.107982 0.105937 
0.096107 0.096686 0.105937 
0.095263 0.097423 0.106782 
0.095263 0.097586 0.107225 
0.096107 0.096789 0.106782 
0.096107 0.096742 0.106526 
0.097796 0.096399 0.106782 
0.096204 0.096742 0.106782 
0.096952 0.096742 0.107609 
0.096952 0.096483 0.106782 
0.096952 0.096748 0.107626 
0.096107 0.097586 0.108441 
0.095446 0.097586 0.107626 
0.097796 0.096626 0.107626 
0.096143 0.097586 0.108471 
0.096107 0.097065 0.107626 
0.096982 0.096742 0.107626 
0.096952 0.097185 0.108471 
0.097624 0.097586 0.109315 
0.097796 0.097525 0.109315 
0.094170 0.099275 0.106782 
0.094418 0.098431 0.106560 
0.094171 0.100120 0.106782 
0.094155 0.100120 0.105937 
0.094418 0.100761 0.106782 
0.094418 0.099275 0.107451 
0.095096 0.097586 0.106782 
0.094488 0.098431 0.106782 
0.094418 0.098564 0.106782 
0.094450 0.100120 0.107626 
0.094418 0.100120 0.107557 
0.095263 0.097797 0.107626 
0.094823 0.098431 0.107626 
0.094501 0.099275 0.107626 
0.095263 0.098431 0.108301 
0.095406 0.098431 0.108471 
0.095263 0.098708 0.108471 
0.096107 0.098431 0.109105 
0.096952 0.097586 0.108997 
0.096432 0.098431 0.109315 
0.096107 0.097613 0.108471 
0.095020 0.100120 0.108471 
0.095263 0.100964 0.108233 
0.095263 0.100668 0.108471 
0.095063 0.099275 0.108471 
0.095263 0.100120 0.108719 
0.095263 0.099275 0.108688 
0.096107 0.100964 0.108900 
0.096107 0.100199 0.109315 
0.096049 0.099275 0.109315 
0.096952 0.097945 0.109315 
0.097796 0.097586 0.109381 
0.097796 0.098431 0.110028 
0.096952 0.098431 0.109623 
0.096952 0.099275 0.109872 
0.096107 0.099069 0.109315 
0.097450 0.099275 0.110160 
0.097796 0.098714 0.110160 
0.096072 0.100120 0.109315 
0.096107 0.099275 0.109355 
0.096107 0.100120 0.109338 
0.097373 0.100120 0.110160 
0.096740 0.100964 0.109315 
0.096952 0.100120 0.109878 
0.096952 0.100964 0.109468 
0.097796 0.099275 0.110343 
0.097796 0.100931 0.110160 
0.097796 0.096314 0.105937 
0.098641 0.096392 0.105937 
0.098641 0.096433 0.106782 
0.098641 0.096607 0.107626 
0.099485 0.096534 0.106782 
0.099485 0.096538 0.105937 
0.100330 0.096625 0.105937 
0.100330 0.096622 0.106782 
0.099485 0.096636 0.107626 
0.101174 0.096582 0.106782 
0.098641 0.096742 0.108068 
0.097796 0.096742 0.107942 
0.097796 0.096977 0.108471 
0.098641 0.096895 0.108471 
0.099485 0.096742 0.108086 
0.098641 0.097331 0.109315 
0.100330 0.096742 0.108258 
0.100330 0.096648 0.107626 
0.100330 0.096792 0.108471 
0.099485 0.096865 0.108471 
0.100719 0.096742 0.108471 
0.103281 0.095897 0.105937 
0.103710 0.095897 0.106782 
0.102019 0.096417 0.106782 
0.101174 0.096592 0.107626 
0.102863 0.096213 0.106782 
0.103708 0.095897 0.106778 
0.103708 0.096082 0.107626 
0.102863 0.096369 0.107626 
0.103708 0.095898 0.106782 
0.104038 0.095897 0.107626 
0.104194 0.095897 0.108471 
0.104552 0.095603 0.108471 
0.102019 0.096492 0.107626 
0.102863 0.096507 0.108471 
0.101174 0.096742 0.108707 
0.101174 0.096679 0.108471 
0.102395 0.096742 0.109315 
0.102019 0.096742 0.109081 
0.102019 0.096597 0.108471 
0.102863 0.096647 0.109315 
0.103708 0.096224 0.108471 
0.103708 0.096335 0.109315 
0.104310 0.095897 0.109315 
0.099485 0.097228 0.109315 
0.099485 0.097586 0.109854 
0.100330 0.097586 0.110058 
0.100330 0.097103 0.109315 
0.101174 0.097586 0.110306 
0.100687 0.097586 0.110160 
0.101174 0.097462 0.110160 
0.101174 0.096946 0.109315 
0.102019 0.096808 0.109315 
0.102019 0.097231 0.110160 
0.102863 0.096742 0.109640 
0.102863 0.096968 0.110160 
0.102019 0.097586 0.110628 
0.103708 0.096576 0.110160 
0.104552 0.095897 0.110034 
0.103400 0.096742 0.110160 
0.104552 0.095960 0.110160 
0.103708 0.097172 0.111004 
0.103708 0.096742 0.110436 
0.102863 0.097573 0.111004 
0.102833 0.097586 0.111004 
0.104552 0.096742 0.111133 
0.103708 0.097586 0.111424 
0.104372 0.096742 0.111004 
0.098641 0.097586 0.109650 
0.098641 0.098431 0.110373 
0.098641 0.098153 0.110160 
0.098111 0.098431 0.110160 
0.099485 0.098431 0.110645 
0.099485 0.097879 0.110160 
0.100330 0.097682 0.110160 
0.101174 0.098353 0.111004 
0.100330 0.098680 0.111004 
0.100330 0.098431 0.110828 
0.097796 0.100964 0.110139 
0.098641 0.099275 0.110751 
0.098641 0.100120 0.110901 
0.098641 0.100964 0.110782 
0.097796 0.100120 0.110426 
0.099240 0.099275 0.111004 
0.099485 0.099058 0.111004 
0.100330 0.099275 0.111363 
0.100972 0.098431 0.111004 
0.099485 0.099275 0.111099 
0.098844 0.100120 0.111004 
0.100747 0.100120 0.111849 
0.100330 0.100120 0.111658 
0.101174 0.099630 0.111849 
0.101174 0.099275 0.111666 
0.099485 0.100120 0.111317 
0.100330 0.100964 0.111786 
0.102019 0.097950 0.111004 
0.102863 0.097586 0.111018 
0.102863 0.098431 0.111768 
0.102019 0.098431 0.111449 
0.101174 0.098431 0.111069 
0.102019 0.098968 0.111849 
0.102863 0.098539 0.111849 
0.103105 0.098431 0.111849 
0.103708 0.098142 0.111849 
0.104164 0.099275 0.112693 
0.103708 0.099275 0.112550 
0.103708 0.098431 0.112062 
0.102019 0.099275 0.112057 
0.101572 0.099275 0.111849 
0.102863 0.099275 0.112341 
0.101174 0.100120 0.112052 
0.102019 0.100120 0.112444 
0.104552 0.098995 0.112693 
0.102713 0.100120 0.112693 
0.102863 0.100120 0.112739 
0.102863 0.100009 0.112693 
0.103708 0.100120 0.112946 
0.104552 0.100120 0.113104 
0.103708 0.099551 0.112693 
0.103708 0.100964 0.113143 
0.104552 0.100964 0.113184 
0.106717 0.094208 0.105937 
0.107086 0.094085 0.106782 
0.107086 0.094001 0.105937 
0.106870 0.094208 0.106782 
0.107086 0.094058 0.107626 
0.106788 0.094208 0.107626 
0.107086 0.093986 0.108471 
0.107930 0.093785 0.107626 
0.107930 0.093843 0.108471 
0.107086 0.093932 0.109315 
0.108775 0.093589 0.106782 
0.109619 0.093600 0.105937 
0.107930 0.093725 0.106782 
0.109619 0.093707 0.106782 
0.110464 0.094128 0.106782 
0.110464 0.094067 0.105937 
0.110397 0.094208 0.107626 
0.108775 0.093848 0.108471 
0.108775 0.093714 0.107626 
0.109619 0.094009 0.108471 
0.109619 0.093845 0.107626 
0.110078 0.094208 0.108471 
0.107930 0.093862 0.109315 
0.107086 0.094208 0.110750 
0.107930 0.093926 0.110160 
0.107086 0.093985 0.110160 
0.108775 0.093918 0.109315 
0.109619 0.094168 0.109315 
0.109619 0.094208 0.109501 
0.108775 0.094044 0.110160 
0.107930 0.094208 0.110884 
0.109224 0.094208 0.110160 
0.105397 0.095053 0.106726 
0.105397 0.094928 0.105937 
0.105159 0.095053 0.105937 
0.105397 0.095057 0.106782 
0.105405 0.095053 0.106782 
0.106241 0.094579 0.106782 
0.104552 0.095487 0.106782 
0.104552 0.095575 0.107626 
0.105397 0.095053 0.107440 
0.105397 0.095025 0.107626 
0.106241 0.094513 0.107626 
0.106241 0.094359 0.108471 
0.105216 0.095053 0.108471 
0.105358 0.095053 0.107626 
0.105397 0.094900 0.108471 
0.106241 0.094252 0.109315 
0.104552 0.095679 0.109315 
0.105197 0.095053 0.109315 
0.106544 0.094208 0.108471 
0.106330 0.094208 0.109315 
0.110572 0.094208 0.106782 
0.110629 0.094208 0.105937 
0.111308 0.095172 0.106782 
0.110464 0.094208 0.107348 
0.110464 0.094256 0.107626 
0.111201 0.095053 0.107626 
0.111254 0.095053 0.106782 
0.109698 0.094208 0.109315 
0.110464 0.094468 0.108471 
0.110736 0.095053 0.109315 
0.111029 0.095053 0.108471 
0.111210 0.095897 0.109315 
0.105397 0.094855 0.109315 
0.105397 0.095053 0.110127 
0.105412 0.095053 0.110160 
0.105988 0.095053 0.111004 
0.105252 0.095897 0.111004 
0.104618 0.095897 0.110160 
0.105397 0.095725 0.111004 
0.105397 0.095069 0.110160 
0.106241 0.094342 0.110160 
0.106487 0.094208 0.110160 
0.106241 0.094814 0.111004 
0.107930 0.094278 0.111004 
0.106241 0.095897 0.111801 
0.105397 0.095897 0.111151 
0.107086 0.094357 0.111004 
0.107086 0.095053 0.111683 
0.106241 0.095053 0.111228 
0.107086 0.095323 0.111849 
0.106330 0.095897 0.111849 
0.107930 0.095897 0.112328 
0.105397 0.096742 0.111754 
0.104552 0.096604 0.111004 
0.105532 0.096742 0.111849 
0.106241 0.095984 0.111849 
0.105397 0.096884 0.111849 
0.107086 0.095897 0.112174 
0.106241 0.096742 0.112271 
0.107086 0.096742 0.112572 
0.108775 0.094457 0.111004 
0.109619 0.094407 0.110160 
0.108775 0.094208 0.110568 
0.110464 0.094773 0.109315 
0.110464 0.095053 0.109963 
0.109619 0.094874 0.111004 
0.110374 0.095053 0.110160 
0.109830 0.095053 0.111004 
0.110464 0.095173 0.110160 
0.111308 0.096742 0.110119 
0.111037 0.096742 0.111004 
0.110936 0.095897 0.110160 
0.111296 0.096742 0.110160 
0.111308 0.097407 0.111004 
0.108775 0.095053 0.111673 
0.107930 0.095053 0.111797 
0.107930 0.095129 0.111849 
0.108775 0.095276 0.111849 
0.109619 0.095053 0.111208 
0.110464 0.095897 0.111152 
0.110464 0.095769 0.111004 
0.109619 0.095727 0.111849 
0.107930 0.096640 0.112693 
0.108775 0.096582 0.112693 
0.108775 0.095897 0.112299 
0.109619 0.095897 0.111991 
0.109231 0.096742 0.112693 
0.109828 0.095897 0.111849 
0.110464 0.096656 0.111849 
0.110559 0.095897 0.111004 
0.110523 0.096742 0.111849 
0.110954 0.097586 0.111849 
0.111308 0.097586 0.111175 
0.109619 0.096742 0.112562 
0.110464 0.096742 0.111914 
0.104552 0.097586 0.111817 
0.104614 0.097586 0.111849 
0.104552 0.098431 0.112396 
0.104552 0.097631 0.111849 
0.105397 0.097586 0.112284 
0.105397 0.098312 0.112693 
0.110464 0.097586 0.112413 
0.111308 0.098431 0.111914 
0.110649 0.098431 0.112693 
0.111308 0.099275 0.112601 
0.111519 0.095897 0.107626 
0.111741 0.096742 0.106782 
0.111559 0.095897 0.106782 
0.111545 0.095897 0.105937 
0.111928 0.097586 0.105937 
0.111951 0.097586 0.107626 
0.111709 0.096742 0.107626 
0.111959 0.097586 0.106782 
0.111308 0.095285 0.107626 
0.111308 0.095621 0.108471 
0.111413 0.095897 0.108471 
0.111902 0.097586 0.108471 
0.111308 0.096160 0.109315 
0.111308 0.095897 0.108928 
0.111652 0.096742 0.108471 
0.111515 0.096742 0.109315 
0.112124 0.098431 0.105937 
0.112153 0.098431 0.106173 
0.112153 0.098530 0.105937 
0.112365 0.099275 0.105937 
0.112153 0.098256 0.106782 
0.112211 0.098431 0.106782 
0.112226 0.098431 0.107626 
0.112613 0.100120 0.105937 
0.112997 0.100644 0.106782 
0.112466 0.099275 0.106782 
0.112773 0.100120 0.106782 
0.112997 0.100964 0.106311 
0.113139 0.100964 0.106782 
0.112153 0.098232 0.107626 
0.112533 0.099275 0.107626 
0.112202 0.098431 0.108471 
0.112153 0.098317 0.108471 
0.112153 0.098431 0.109133 
0.112588 0.099275 0.108471 
0.112580 0.099275 0.109315 
0.112913 0.100120 0.107626 
0.112997 0.100283 0.107626 
0.112997 0.099937 0.109315 
0.112997 0.100036 0.108471 
0.112997 0.100120 0.108159 
0.113556 0.100964 0.108471 
0.113047 0.100120 0.108471 
0.111637 0.097586 0.110160 
0.111308 0.096772 0.110160 
0.111801 0.097586 0.109315 
0.112135 0.098431 0.109315 
0.112153 0.098469 0.109315 
0.111993 0.098431 0.110160 
0.112153 0.099107 0.111004 
0.112153 0.098733 0.110160 
0.112478 0.099275 0.110160 
0.112266 0.099275 0.111004 
0.112889 0.100120 0.111004 
0.112997 0.100255 0.111004 
0.113128 0.100120 0.109315 
0.113100 0.100120 0.110160 
0.112997 0.099996 0.110160 
0.113592 0.100964 0.111004 
0.112997 0.100120 0.110639 
0.111377 0.097586 0.111004 
0.111308 0.098354 0.111849 
0.111350 0.098431 0.111849 
0.111751 0.098431 0.111004 
0.112153 0.099275 0.111288 
0.112153 0.099693 0.111849 
0.111885 0.099275 0.111849 
0.112153 0.100120 0.112261 
0.111785 0.100120 0.112693 
0.112456 0.100120 0.111849 
0.112997 0.100964 0.111853 
0.112997 0.100959 0.111849 
0.113001 0.100964 0.111849 
0.106241 0.097586 0.112700 
0.107086 0.096982 0.112693 
0.106241 0.097573 0.112693 
0.107629 0.096742 0.112693 
0.107930 0.096742 0.112744 
0.107930 0.097586 0.113158 
0.109619 0.096989 0.112693 
0.108775 0.097586 0.113179 
0.108775 0.096742 0.112782 
0.105397 0.098431 0.112757 
0.106226 0.097586 0.112693 
0.105250 0.098431 0.112693 
0.105397 0.099275 0.113098 
0.106241 0.098431 0.113074 
0.107086 0.097586 0.112996 
0.107086 0.098431 0.113323 
0.107930 0.098548 0.113538 
0.107930 0.099275 0.113724 
0.107093 0.099275 0.113538 
0.104552 0.099275 0.112818 
0.105397 0.100120 0.113262 
0.106241 0.100120 0.113414 
0.106818 0.100120 0.113538 
0.107086 0.099281 0.113538 
0.106241 0.099275 0.113324 
0.107086 0.099275 0.113536 
0.107648 0.100964 0.113538 
0.107086 0.100516 0.113538 
0.107086 0.100120 0.113605 
0.107930 0.098431 0.113497 
0.109619 0.097586 0.112969 
0.108775 0.098431 0.113504 
0.108775 0.098521 0.113538 
0.109619 0.099123 0.113538 
0.108775 0.099275 0.113763 
0.110464 0.098431 0.112835 
0.109619 0.098431 0.113284 
0.110122 0.097586 0.112693 
0.110464 0.098142 0.112693 
0.110464 0.099275 0.113242 
0.107930 0.100120 0.113794 
0.108775 0.100120 0.113878 
0.109619 0.099275 0.113587 
0.111218 0.099275 0.112693 
0.111308 0.099406 0.112693 
0.110464 0.100037 0.113538 
0.110529 0.100120 0.113538 
0.111308 0.100120 0.113106 
0.109765 0.099275 0.113538 
0.109619 0.100120 0.113808 
0.110464 0.100120 0.113567 
0.110464 0.100964 0.113720 
0.110969 0.100964 0.113538 
0.112153 0.100947 0.112693 
0.111308 0.100964 0.113357 
0.112159 0.100964 0.112693 
0.112153 0.100964 0.112699 
0.094608 0.100964 0.105937 
0.094548 0.100964 0.106782 
0.095263 0.101744 0.106782 
0.095281 0.101809 0.105937 
0.095263 0.101791 0.105937 
0.096107 0.102333 0.106782 
0.094805 0.100964 0.107626 
0.095263 0.101416 0.107626 
0.095347 0.101809 0.106782 
0.096107 0.101923 0.107626 
0.096952 0.102306 0.107626 
0.096749 0.102653 0.106782 
0.096952 0.103060 0.105937 
0.097796 0.103109 0.106782 
0.096952 0.102653 0.106970 
0.096952 0.102748 0.106782 
0.097723 0.102653 0.107626 
0.097796 0.102687 0.107626 
0.096107 0.101809 0.107814 
0.095530 0.100964 0.108471 
0.095898 0.101809 0.107626 
0.096952 0.101784 0.108471 
0.096952 0.101809 0.108434 
0.096998 0.101809 0.108471 
0.096107 0.101365 0.108471 
0.097796 0.101809 0.109180 
0.097796 0.102245 0.108471 
0.096952 0.101132 0.109315 
0.097995 0.103498 0.105937 
0.097796 0.103403 0.105937 
0.098641 0.103529 0.106782 
0.099485 0.104342 0.105966 
0.098641 0.103498 0.106851 
0.098585 0.103498 0.106782 
0.099485 0.104019 0.106782 
0.100330 0.104337 0.107626 
0.100330 0.104342 0.107605 
0.097796 0.102653 0.107692 
0.098641 0.102653 0.108720 
0.097930 0.101809 0.109315 
0.098465 0.102653 0.108471 
0.099485 0.103414 0.108471 
0.099485 0.103498 0.108255 
0.098641 0.103152 0.107626 
0.099158 0.103498 0.107626 
0.099485 0.103727 0.107626 
0.098641 0.102779 0.108471 
0.100330 0.104090 0.108471 
0.100337 0.104342 0.107626 
0.099591 0.103498 0.108471 
0.099485 0.103027 0.109315 
0.100330 0.103749 0.109315 
0.100651 0.104342 0.108471 
0.100330 0.104580 0.106782 
0.099485 0.104354 0.105937 
0.099996 0.104342 0.106782 
0.100887 0.105187 0.105937 
0.100330 0.104858 0.105937 
0.101174 0.104987 0.107626 
0.101174 0.105158 0.106782 
0.101174 0.104788 0.108471 
0.101174 0.105187 0.106657 
0.102117 0.106031 0.105937 
0.101214 0.105187 0.106782 
0.102238 0.106031 0.106782 
0.102019 0.105834 0.106782 
0.102863 0.106755 0.105937 
0.102375 0.106031 0.107626 
0.102863 0.106681 0.106782 
0.103051 0.106876 0.106782 
0.102987 0.106876 0.105937 
0.103708 0.107567 0.106782 
0.102019 0.105696 0.107626 
0.101443 0.105187 0.107626 
0.101643 0.105187 0.108471 
0.102479 0.106031 0.108471 
0.102019 0.105565 0.108471 
0.102019 0.105389 0.109315 
0.102863 0.106560 0.107626 
0.102863 0.106246 0.109315 
0.103162 0.106876 0.107626 
0.103708 0.107312 0.108471 
0.103708 0.107488 0.107626 
0.103290 0.106876 0.108471 
0.102863 0.106446 0.108471 
0.104552 0.107511 0.109315 
0.104552 0.107720 0.108967 
0.103708 0.106947 0.109315 
0.098641 0.101777 0.110160 
0.098641 0.101809 0.110117 
0.097796 0.101727 0.109315 
0.098641 0.102344 0.109315 
0.098679 0.101809 0.110160 
0.099039 0.102653 0.109315 
0.097823 0.100964 0.110160 
0.098973 0.100964 0.111004 
0.099485 0.101835 0.111004 
0.099485 0.102556 0.110160 
0.100056 0.103498 0.109315 
0.099485 0.102653 0.109998 
0.100474 0.103498 0.110160 
0.100330 0.103498 0.109866 
0.101174 0.104342 0.109812 
0.100987 0.104342 0.109315 
0.100330 0.103362 0.110160 
0.099591 0.102653 0.110160 
0.100120 0.102653 0.111004 
0.100815 0.103498 0.111004 
0.099466 0.101809 0.111004 
0.099485 0.101809 0.111022 
0.099485 0.100964 0.111330 
0.100465 0.101809 0.111849 
0.100444 0.100964 0.111849 
0.100330 0.101809 0.111746 
0.100759 0.102653 0.111849 
0.100330 0.102653 0.111316 
0.101174 0.100964 0.112237 
0.101174 0.101809 0.112317 
0.101174 0.103498 0.111675 
0.100330 0.102922 0.111004 
0.101306 0.104342 0.110160 
0.101174 0.104213 0.110160 
0.102019 0.100964 0.112649 
0.102019 0.101222 0.112693 
0.102111 0.100964 0.112693 
0.101174 0.102653 0.112232 
0.101907 0.101809 0.112693 
0.102020 0.102653 0.112693 
0.104552 0.102323 0.112693 
0.104552 0.102653 0.112503 
0.101174 0.103898 0.111004 
0.102019 0.104342 0.111500 
0.101646 0.104342 0.111004 
0.102019 0.102653 0.112693 
0.102019 0.103498 0.112360 
0.101174 0.103345 0.111849 
0.101303 0.103498 0.111849 
0.102863 0.103073 0.112693 
0.102019 0.104075 0.111849 
0.103708 0.104342 0.111827 
0.104552 0.104342 0.111660 
0.103708 0.104304 0.111849 
0.103708 0.103498 0.112303 
0.102863 0.103498 0.112481 
0.104552 0.103902 0.111849 
0.102019 0.105093 0.110160 
0.101845 0.105187 0.109315 
0.101174 0.104521 0.109315 
0.102863 0.105862 0.110160 
0.102019 0.105187 0.109926 
0.102115 0.105187 0.110160 
0.103111 0.106031 0.110160 
0.103708 0.106031 0.110558 
0.103708 0.105565 0.111004 
0.102863 0.105232 0.111004 
0.102639 0.106031 0.109315 
0.103708 0.106876 0.109434 
0.103621 0.106876 0.109315 
0.102863 0.106031 0.109840 
0.104552 0.106704 0.110160 
0.104552 0.106876 0.110008 
0.103708 0.106378 0.110160 
0.102863 0.104368 0.111849 
0.102863 0.105187 0.111052 
0.102759 0.104342 0.111849 
0.102789 0.105187 0.111004 
0.102019 0.104663 0.111004 
0.102863 0.104342 0.111872 
0.103708 0.105187 0.111298 
0.102911 0.104342 0.111849 
0.104076 0.107720 0.105937 
0.104552 0.108177 0.106782 
0.103882 0.107720 0.106782 
0.104552 0.107962 0.108471 
0.103946 0.107720 0.107626 
0.104192 0.107720 0.108471 
0.102863 0.100964 0.112986 
0.102863 0.101809 0.113027 
0.102019 0.101809 0.112745 
0.102019 0.102651 0.112693 
0.104552 0.101809 0.112961 
0.103708 0.101809 0.113068 
0.103848 0.102653 0.112693 
0.102863 0.102653 0.112855 
0.103708 0.102653 0.112732 
0.103708 0.102733 0.112693 
0.107930 0.107720 0.106617 
0.107930 0.107282 0.105937 
0.105078 0.107720 0.109315 
0.108675 0.106876 0.105937 
0.108775 0.106876 0.106350 
0.109619 0.106876 0.106006 
0.108775 0.107111 0.106782 
0.109596 0.106876 0.105937 
0.109619 0.106918 0.105937 
0.109619 0.106652 0.106782 
0.109081 0.106876 0.106782 
0.108775 0.107692 0.107626 
0.111308 0.107720 0.106698 
0.110464 0.107551 0.105937 
0.110464 0.106876 0.106760 
0.109619 0.106781 0.107626 
0.111308 0.106801 0.107626 
0.110464 0.106860 0.106782 
0.110464 0.106467 0.107626 
0.110487 0.106876 0.106782 
0.108748 0.107720 0.107626 
0.109619 0.106876 0.107840 
0.109510 0.106876 0.107626 
0.109619 0.107144 0.108471 
0.109849 0.106876 0.108471 
0.109906 0.106876 0.109315 
0.110464 0.106374 0.108471 
0.111308 0.106031 0.108861 
0.111308 0.106214 0.108471 
0.110925 0.106031 0.109315 
0.109619 0.107152 0.109315 
0.107086 0.102118 0.112693 
0.105397 0.102653 0.112366 
0.104552 0.103498 0.112046 
0.105397 0.103498 0.111899 
0.105397 0.103595 0.111849 
0.106241 0.103511 0.111849 
0.107930 0.104342 0.111598 
0.106241 0.103498 0.111856 
0.106241 0.102653 0.112333 
0.107086 0.102653 0.112359 
0.107086 0.103498 0.111868 
0.107930 0.102653 0.112481 
0.107086 0.103532 0.111849 
0.107930 0.103498 0.111991 
0.107930 0.102340 0.112693 
0.108836 0.102653 0.112693 
0.108775 0.102653 0.112677 
0.108775 0.104150 0.111849 
0.108775 0.104342 0.111760 
0.108775 0.103498 0.112184 
0.109619 0.102920 0.112693 
0.107930 0.103769 0.111849 
0.109619 0.104285 0.111849 
0.111308 0.104140 0.111849 
0.110464 0.103123 0.112693 
0.111308 0.103066 0.112693 
0.109619 0.103498 0.112325 
0.110464 0.104248 0.111849 
0.110464 0.103498 0.112418 
0.104552 0.105635 0.111004 
0.104552 0.106031 0.110721 
0.106241 0.106031 0.110760 
0.107086 0.105598 0.111004 
0.107930 0.105821 0.111004 
0.107086 0.106031 0.110835 
0.106241 0.107084 0.110160 
0.105397 0.106031 0.110728 
0.105184 0.106876 0.110160 
0.105397 0.106876 0.110198 
0.105397 0.106928 0.110160 
0.107086 0.107720 0.109748 
0.107086 0.107221 0.110160 
0.106241 0.106876 0.110307 
0.107086 0.106876 0.110397 
0.107930 0.106031 0.110905 
0.107930 0.107291 0.110160 
0.104552 0.105187 0.111280 
0.105397 0.104342 0.111517 
0.105397 0.105187 0.111164 
0.106241 0.105187 0.111104 
0.105397 0.105507 0.111004 
0.106241 0.104342 0.111443 
0.107930 0.105187 0.111283 
0.107086 0.104342 0.111465 
0.106241 0.105430 0.111004 
0.107086 0.105187 0.111161 
0.108775 0.105892 0.111004 
0.109619 0.105713 0.111004 
0.110492 0.106031 0.110160 
0.111308 0.104944 0.111004 
0.110464 0.105318 0.111004 
0.109619 0.106670 0.110160 
0.109619 0.106876 0.109897 
0.108775 0.107109 0.110160 
0.108963 0.107720 0.109315 
0.108775 0.106031 0.110923 
0.108775 0.106876 0.110347 
0.109619 0.106031 0.110779 
0.107930 0.106876 0.110441 
0.109251 0.106876 0.110160 
0.110464 0.106351 0.109315 
0.110464 0.106054 0.110160 
0.110464 0.106031 0.110194 
0.109619 0.104342 0.111815 
0.108775 0.105187 0.111379 
0.110464 0.105187 0.111115 
0.110464 0.104342 0.111775 
0.111308 0.104342 0.111649 
0.109619 0.105187 0.111335 
0.110739 0.105187 0.111004 
0.113511 0.101809 0.106782 
0.112997 0.101326 0.105937 
0.113800 0.101809 0.107626 
0.113842 0.101888 0.107626 
0.113842 0.102628 0.106782 
0.113852 0.102653 0.106782 
0.114224 0.102653 0.107626 
0.113448 0.102653 0.105937 
0.113842 0.102653 0.106761 
0.113842 0.103498 0.106245 
0.113842 0.104225 0.105937 
0.113867 0.104342 0.105937 
0.114686 0.103800 0.107626 
0.114569 0.103498 0.107626 
0.114136 0.103498 0.106782 
0.113842 0.101440 0.108471 
0.113362 0.100964 0.107626 
0.114084 0.101809 0.108471 
0.113842 0.101809 0.107759 
0.113736 0.100964 0.109315 
0.114565 0.102653 0.108471 
0.114686 0.102902 0.108471 
0.114686 0.103498 0.107876 
0.115212 0.104342 0.108471 
0.115194 0.103498 0.109315 
0.114838 0.102653 0.109315 
0.114686 0.102653 0.108802 
0.114963 0.103498 0.108471 
0.114551 0.105187 0.106782 
0.114393 0.104342 0.106782 
0.114686 0.105187 0.106997 
0.111381 0.107720 0.106782 
0.112153 0.107592 0.107626 
0.111308 0.107642 0.106782 
0.111308 0.106876 0.107546 
0.113763 0.106876 0.105937 
0.113842 0.106618 0.105937 
0.114516 0.106031 0.106782 
0.113842 0.106876 0.106039 
0.114333 0.106876 0.106782 
0.114064 0.107720 0.107626 
0.114653 0.106876 0.107626 
0.112153 0.105876 0.109315 
0.112153 0.106031 0.109099 
0.111308 0.105865 0.109315 
0.112472 0.106031 0.109315 
0.112153 0.106876 0.108240 
0.112432 0.106876 0.108471 
0.111407 0.106876 0.107626 
0.112153 0.106616 0.108471 
0.114686 0.106796 0.107626 
0.113842 0.107720 0.108130 
0.112997 0.107720 0.108119 
0.113842 0.106876 0.109275 
0.113842 0.107513 0.108471 
0.112997 0.107363 0.108471 
0.112997 0.106876 0.108920 
0.114872 0.104342 0.107626 
0.114686 0.104342 0.107275 
0.115017 0.105187 0.107626 
0.114686 0.106031 0.107077 
0.114933 0.106031 0.107626 
0.115275 0.105187 0.108471 
0.115297 0.105187 0.109315 
0.114686 0.106876 0.107712 
0.114709 0.106876 0.108471 
0.114686 0.106907 0.108471 
0.115017 0.106031 0.109315 
0.114686 0.106876 0.108568 
0.115123 0.106031 0.108471 
0.114686 0.106488 0.109315 
0.113801 0.100964 0.110160 
0.114419 0.101809 0.110160 
0.113842 0.101118 0.109315 
0.114335 0.101809 0.109315 
0.114686 0.102372 0.109315 
0.113842 0.101017 0.110160 
0.114180 0.101809 0.111004 
0.114686 0.102653 0.110780 
0.114686 0.104342 0.110829 
0.112266 0.101809 0.112693 
0.112997 0.101809 0.112212 
0.112997 0.102653 0.112218 
0.112153 0.102298 0.112693 
0.113842 0.101300 0.111004 
0.113688 0.102653 0.111849 
0.113842 0.101809 0.111491 
0.113473 0.101809 0.111849 
0.112153 0.104342 0.111388 
0.112153 0.102653 0.112594 
0.112153 0.103897 0.111849 
0.111308 0.103498 0.112397 
0.112153 0.103498 0.112178 
0.113842 0.103498 0.111608 
0.113842 0.102653 0.111753 
0.114686 0.103154 0.111004 
0.114569 0.102653 0.111004 
0.112997 0.104342 0.111231 
0.113159 0.103498 0.111849 
0.112997 0.103579 0.111849 
0.112997 0.103498 0.111900 
0.114889 0.102653 0.110160 
0.114686 0.102248 0.110160 
0.115351 0.104342 0.109315 
0.115154 0.103498 0.110160 
0.114686 0.103498 0.111019 
0.114686 0.103663 0.111004 
0.114700 0.103498 0.111004 
0.112997 0.105505 0.110160 
0.112153 0.105187 0.110306 
0.111308 0.105187 0.110663 
0.111308 0.105514 0.110160 
0.112153 0.105296 0.110160 
0.112997 0.106031 0.109670 
0.113842 0.104634 0.111004 
0.113842 0.105187 0.110666 
0.114369 0.104342 0.111004 
0.114686 0.105187 0.110424 
0.112997 0.105187 0.110458 
0.113842 0.105890 0.110160 
0.114686 0.105592 0.110160 
0.112997 0.106422 0.109315 
0.113842 0.106031 0.110053 
0.113842 0.106838 0.109315 
0.112153 0.104673 0.111004 
0.112997 0.104600 0.111004 
0.113842 0.104342 0.111179 
0.114686 0.106031 0.109796 
0.114960 0.105187 0.110160 
0.115197 0.104342 0.110160 
0.105397 0.108008 0.105937 
0.105397 0.108460 0.107626 
0.105397 0.108382 0.106782 
0.106015 0.108565 0.107626 
0.106241 0.108565 0.107401 
0.106241 0.108417 0.106782 
0.107086 0.107748 0.105937 
0.107086 0.108282 0.106782 
0.107930 0.107846 0.106782 
0.107086 0.108565 0.107580 
0.106241 0.108584 0.107626 
0.104552 0.108186 0.107626 
0.106241 0.108565 0.107971 
0.105397 0.108244 0.108471 
0.106241 0.108398 0.108471 
0.107086 0.108507 0.108471 
0.107930 0.108312 0.107626 
0.107086 0.108565 0.108290 
0.107086 0.108574 0.107626 
0.107132 0.108565 0.107626 
0.107086 0.108098 0.109315 
0.108095 0.107720 0.106782 
0.110659 0.107720 0.105937 
0.108775 0.107720 0.107663 
0.107930 0.108426 0.108471 
0.109104 0.107720 0.108471 
0.108775 0.108009 0.108471 
0.105397 0.107808 0.109315 
0.105397 0.107720 0.109433 
0.106241 0.107720 0.109595 
0.106241 0.107951 0.109315 
0.107930 0.107720 0.109818 
0.107930 0.108140 0.109315 
0.108775 0.107720 0.109527 
0.108775 0.107841 0.109315 
0.112153 0.108301 0.105937 
0.111308 0.108145 0.105937 
0.112997 0.108048 0.107626 
0.112997 0.108262 0.106782 
0.112153 0.108217 0.106782 
0.112153 0.107720 0.107511 
0.113842 0.107720 0.106719 
0.113875 0.107720 0.106782 
0.113842 0.107756 0.106782 
0.112290 0.107720 0.107626 
0.113842 0.107867 0.107626 
0.105397 0.100964 0.113197 
0.105397 0.101809 0.112853 
0.106241 0.100964 0.113251 
0.106241 0.102035 0.112693 
0.105397 0.102089 0.112693 
0.107086 0.100964 0.113397 
0.106241 0.101809 0.112830 
0.107086 0.101809 0.112902 
0.107930 0.100964 0.113602 
0.107930 0.101105 0.113538 
